# .PCD v0.7 - Point Cloud Data file format
VERSION 0.7
FIELDS x y z rgb
SIZE 4 4 4 4
TYPE F F F F
COUNT 1 1 1 1
WIDTH 957
HEIGHT 1
VIEWPOINT 0 0 0 1 0 0 0
POINTS 957
DATA ascii
0.72482342 -2.1143739 2.6226044e-06 1.4290323e-38
0.73649824 -2.1143739 2.6226044e-06 1.4290323e-38
0.74583805 -2.1143739 2.6226044e-06 1.4290323e-38
0.75517792 -2.1143739 2.6226044e-06 1.4290323e-38
0.76451778 -2.1143739 2.6226044e-06 1.4290323e-38
0.77385759 -2.1143739 2.6226044e-06 1.4290323e-38
0.78319746 -2.1143739 2.6226044e-06 1.4290323e-38
0.79487228 -2.1143739 2.6226044e-06 1.4290323e-38
0.80654705 -2.1143739 2.6226044e-06 1.4290323e-38
0.81588691 -2.1143739 2.6226044e-06 1.4290323e-38
0.82522678 -2.1143739 2.6226044e-06 1.4290323e-38
0.83456653 -2.1143737 2.7418137e-06 1.4290323e-38
0.8439064 -2.1143737 2.7418137e-06 1.4290323e-38
0.85324621 -2.1143737 2.7418137e-06 1.4290323e-38
0.86492103 -2.1143737 2.7418137e-06 1.4290323e-38
0.87659585 -2.1143737 2.7418137e-06 1.4290323e-38
0.88593566 -2.1143737 2.7418137e-06 1.4290323e-38
0.89527547 -2.1143737 2.8610229e-06 1.4290323e-38
0.90461528 -2.1143734 2.9802322e-06 1.4290323e-38
0.91395509 -2.1143734 2.9802322e-06 1.4290323e-38
0.92329496 -2.1143734 2.9802322e-06 1.4290323e-38
0.93496972 -2.1143734 2.9802322e-06 1.4290323e-38
0.9466446 -2.1143734 2.9802322e-06 1.4290323e-38
0.95598441 -2.1143734 2.9802322e-06 1.4290323e-38
0.96532428 -2.1143734 2.9802322e-06 1.4290323e-38
0.97466409 -2.1143734 2.9802322e-06 1.4290323e-38
0.98400396 -2.1143734 2.9802322e-06 1.4290323e-38
0.99334383 -2.1143734 2.9802322e-06 1.4290323e-38
1.0050186 -2.1143734 2.9802322e-06 1.4290323e-38
1.0166934 -2.1143734 2.9802322e-06 1.4290323e-38
1.0260332 -2.1143734 2.9802322e-06 1.4290323e-38
1.0353731 -2.1143734 2.9802322e-06 1.4290323e-38
1.0447129 -2.1143734 2.9802322e-06 1.4290323e-38
1.0540527 -2.1143734 2.9802322e-06 1.4290323e-38
1.0633926 -2.1143734 2.9802322e-06 1.4290323e-38
1.0750674 -2.1143734 2.9802322e-06 1.4290323e-38
1.0867422 -2.1143734 2.9802322e-06 1.4290323e-38
1.096082 -2.1143734 2.9802322e-06 1.4290323e-38
1.1054219 -2.1143734 2.9802322e-06 1.4290323e-38
1.1147617 -2.1143734 2.9802322e-06 1.4290323e-38
1.1241015 -2.1143734 2.9802322e-06 1.4290323e-38
1.1334414 -2.1143734 2.9802322e-06 1.4290323e-38
1.1451162 -2.1143734 2.9802322e-06 1.4290323e-38
1.156791 -2.1143734 2.9802322e-06 1.4290323e-38
1.1661309 -2.1143734 2.9802322e-06 1.4290323e-38
1.1754707 -2.1143734 2.9802322e-06 1.4290323e-38
1.1848105 -2.1143734 2.9802322e-06 1.4290323e-38
1.1941504 -2.1143734 2.9802322e-06 1.4290323e-38
1.2034903 -2.1143734 2.9802322e-06 1.4290323e-38
1.215165 -2.1143734 2.9802322e-06 1.4290323e-38
1.2268399 -2.1143734 2.9802322e-06 1.4290323e-38
1.2361797 -2.1143734 2.9802322e-06 1.4290323e-38
1.2455195 -2.1143734 2.9802322e-06 1.4290323e-38
1.2548594 -2.1143734 2.9802322e-06 1.4290323e-38
1.2641993 -2.1143734 2.9802322e-06 1.4290323e-38
1.2735391 -2.1143734 2.9802322e-06 1.4290323e-38
1.2852139 -2.1143734 2.9802322e-06 1.4290323e-38
1.2968887 -2.1143734 2.9802322e-06 1.4290323e-38
1.3062285 -2.1143734 2.9802322e-06 1.4290323e-38
1.3155683 -2.1143734 2.9802322e-06 1.4290323e-38
1.3249083 -2.1143734 2.9802322e-06 1.4290323e-38
1.3342481 -2.1143734 2.9802322e-06 1.4290323e-38
1.3435879 -2.1143734 2.9802322e-06 1.4290323e-38
1.3552628 -2.1143734 2.9802322e-06 1.4290323e-38
1.3669375 -2.1143734 2.9802322e-06 1.4290323e-38
1.3762773 -2.1143734 2.9802322e-06 1.4290323e-38
1.3856173 -2.1143734 2.9802322e-06 1.4290323e-38
1.3949571 -2.1143734 2.9802322e-06 1.4290323e-38
1.4042969 -2.1143734 2.9802322e-06 1.4290323e-38
1.4136367 -2.1143734 2.9802322e-06 1.4290323e-38
1.4253116 -2.1143734 2.9802322e-06 1.4290323e-38
1.4369863 -2.1143734 2.9802322e-06 1.4290323e-38
1.4463261 -2.1143734 2.9802322e-06 1.4290323e-38
1.4556661 -2.1143734 2.9802322e-06 1.4290323e-38
1.4650059 -2.1143734 2.9802322e-06 1.4290323e-38
1.4743457 -2.1143734 2.9802322e-06 1.4290323e-38
1.4836856 -2.1143734 2.9802322e-06 1.4290323e-38
1.4930254 -2.1143734 2.9802322e-06 1.4290323e-38
1.5047002 -2.1143734 2.9802322e-06 1.4290323e-38
1.5140401 -2.1143734 2.9802322e-06 1.4290323e-38
-1.463948 -2.1069336 8.3446503e-07 1.4290323e-38
-1.4546316 -2.1069336 8.3446503e-07 1.4290323e-38
-1.4453154 -2.1069336 8.3446503e-07 1.4290323e-38
-1.4359992 -2.1069336 8.3446503e-07 1.4290323e-38
-1.4266827 -2.1069336 8.3446503e-07 1.4290323e-38
-1.4150375 -2.1069336 8.3446503e-07 1.4290323e-38
-1.4033921 -2.1069336 8.3446503e-07 1.4290323e-38
-1.3940759 -2.1069336 8.3446503e-07 1.4290323e-38
-1.3847594 -2.1069336 8.3446503e-07 1.4290323e-38
-1.3754432 -2.1069336 8.3446503e-07 1.4290323e-38
-1.3661269 -2.1069336 8.3446503e-07 1.4290323e-38
-1.3568106 -2.1069336 8.3446503e-07 1.4290323e-38
-1.3451653 -2.1069336 8.3446503e-07 1.4290323e-38
-1.3335199 -2.1069336 8.3446503e-07 1.4290323e-38
-1.3242036 -2.1069336 8.3446503e-07 1.4290323e-38
-1.3148873 -2.1069336 8.3446503e-07 1.4290323e-38
-1.3055711 -2.1069336 8.3446503e-07 1.4290323e-38
-1.2962548 -2.1069336 8.3446503e-07 1.4290323e-38
-1.2869384 -2.1069336 8.3446503e-07 1.4290323e-38
-1.2752932 -2.1069336 8.3446503e-07 1.4290323e-38
-1.2636478 -2.1069336 8.3446503e-07 1.4290323e-38
-1.2543315 -2.1069336 8.3446503e-07 1.4290323e-38
-1.2450151 -2.1069336 8.3446503e-07 1.4290323e-38
-1.2356989 -2.1069336 8.3446503e-07 1.4290323e-38
-1.2263826 -2.1069336 8.3446503e-07 1.4290323e-38
-1.2147372 -2.1069336 8.3446503e-07 1.4290323e-38
-1.2030919 -2.1069336 8.3446503e-07 1.4290323e-38
-1.1937757 -2.1069336 8.3446503e-07 1.4290323e-38
-1.1844592 -2.1069336 8.3446503e-07 1.4290323e-38
-1.175143 -2.1069336 8.3446503e-07 1.4290323e-38
-1.1658268 -2.1069336 8.3446503e-07 1.4290323e-38
-1.1565104 -2.1069336 8.3446503e-07 1.4290323e-38
-1.144865 -2.1069336 8.3446503e-07 1.4290323e-38
-1.1332197 -2.1069336 8.3446503e-07 1.4290323e-38
-1.1239035 -2.1069336 8.3446503e-07 1.4290323e-38
-1.1145871 -2.1069336 8.3446503e-07 1.4290323e-38
-1.1052709 -2.1069336 8.3446503e-07 1.4290323e-38
-1.0959547 -2.1069336 8.3446503e-07 1.4290323e-38
-1.0866382 -2.1069336 8.3446503e-07 1.4290323e-38
-1.074993 -2.1069336 8.3446503e-07 1.4290323e-38
-1.0633476 -2.1069336 8.3446503e-07 1.4290323e-38
-1.0540313 -2.1069336 8.3446503e-07 1.4290323e-38
-1.0447149 -2.1069336 8.3446503e-07 1.4290323e-38
-1.0353987 -2.1069336 8.3446503e-07 1.4290323e-38
-1.0260824 -2.1069336 8.3446503e-07 1.4290323e-38
-1.0167661 -2.1069336 8.3446503e-07 1.4290323e-38
-1.0051208 -2.1069336 8.3446503e-07 1.4290323e-38
-0.99347532 -2.1069336 8.3446503e-07 1.4290323e-38
-0.98415905 -2.1069336 8.3446503e-07 1.4290323e-38
-0.97484279 -2.1069336 8.3446503e-07 1.4290323e-38
-0.96552646 -2.1069336 8.3446503e-07 1.4290323e-38
-0.9562102 -2.1069336 8.3446503e-07 1.4290323e-38
-0.94689393 -2.1069336 8.3446503e-07 1.4290323e-38
-0.93524855 -2.1069336 8.3446503e-07 1.4290323e-38
-0.92360318 -2.1069336 8.3446503e-07 1.4290323e-38
-0.91428685 -2.1069336 8.3446503e-07 1.4290323e-38
-0.90497065 -2.1069336 8.3446503e-07 1.4290323e-38
-0.89565432 -2.1069336 8.3446503e-07 1.4290323e-38
-0.886338 -2.1069336 8.3446503e-07 1.4290323e-38
-0.87469268 -2.1069336 8.3446503e-07 1.4290323e-38
-0.86304736 -2.1069336 8.3446503e-07 1.4290323e-38
-0.85373104 -2.1069336 8.3446503e-07 1.4290323e-38
-0.84441471 -2.1069336 8.3446503e-07 1.4290323e-38
-0.83509845 -2.1069336 8.3446503e-07 1.4290323e-38
-0.82578218 -2.1069336 8.3446503e-07 1.4290323e-38
-0.81646585 -2.1069336 8.3446503e-07 1.4290323e-38
-0.80482054 -2.1069336 8.3446503e-07 1.4290323e-38
-0.79317516 -2.1069336 8.3446503e-07 1.4290323e-38
-0.7838589 -2.1069336 8.3446503e-07 1.4290323e-38
-0.77454257 -2.1069336 8.3446503e-07 1.4290323e-38
-0.76522624 -2.1069336 8.3446503e-07 1.4290323e-38
-0.75591004 -2.1069336 8.3446503e-07 1.4290323e-38
-0.74659371 -2.1069336 7.7486038e-07 1.4290323e-38
-0.73494846 -2.1069338 7.1525574e-07 1.4290323e-38
-0.72330308 -2.1069338 7.1525574e-07 1.4290323e-38
-0.71398675 -2.1069338 7.1525574e-07 1.4290323e-38
-0.70467049 -2.1069338 7.1525574e-07 1.4290323e-38
-0.69535422 -2.1069338 7.1525574e-07 1.4290323e-38
-0.6860379 -2.1069338 7.1525574e-07 1.4290323e-38
-0.67672163 -2.1069338 7.1525574e-07 1.4290323e-38
-0.66507626 -2.1069338 7.1525574e-07 1.4290323e-38
-0.65343094 -2.1069338 7.1525574e-07 1.4290323e-38
-0.64411461 -2.1069338 7.1525574e-07 1.4290323e-38
-0.63479829 -2.1069338 7.1525574e-07 1.4290323e-38
-0.62548208 -2.1069338 7.1525574e-07 1.4290323e-38
-0.61616576 -2.1069338 7.1525574e-07 1.4290323e-38
-0.60684943 -2.1069338 7.1525574e-07 1.4290323e-38
-0.59520411 -2.1069338 7.1525574e-07 1.4290323e-38
-0.58355874 -2.1069338 7.1525574e-07 1.4290323e-38
-0.57424247 -2.1069338 7.1525574e-07 1.4290323e-38
-0.56492615 -2.1069338 7.1525574e-07 1.4290323e-38
-0.55560988 -2.1069338 7.1525574e-07 1.4290323e-38
-0.54629362 -2.1069338 7.1525574e-07 1.4290323e-38
-0.53697729 -2.1069338 7.1525574e-07 1.4290323e-38
-0.52533191 -2.1069338 7.1525574e-07 1.4290323e-38
-0.51368654 -2.1069338 7.1525574e-07 1.4290323e-38
-0.50437033 -2.1069338 7.1525574e-07 1.4290323e-38
-0.49505401 -2.1069338 7.1525574e-07 1.4290323e-38
-0.48573771 -2.1069338 7.1525574e-07 1.4290323e-38
-0.47642142 -2.1069338 7.1525574e-07 1.4290323e-38
-0.46477607 -2.1069338 7.1525574e-07 1.4290323e-38
-0.45313072 -2.1069338 7.1525574e-07 1.4290323e-38
-0.44381443 -2.1069338 7.1525574e-07 1.4290323e-38
-0.43449813 -2.1069338 7.1525574e-07 1.4290323e-38
-0.42518184 -2.1069338 7.1525574e-07 1.4290323e-38
-0.41586557 -2.1069338 7.1525574e-07 1.4290323e-38
-0.40654927 -2.1069338 7.1525574e-07 1.4290323e-38
-0.3949039 -2.1069338 7.1525574e-07 1.4290323e-38
-0.38325855 -2.1069338 7.1525574e-07 1.4290323e-38
-0.37394226 -2.1069338 7.1525574e-07 1.4290323e-38
-0.36462596 -2.1069338 7.1525574e-07 1.4290323e-38
-0.3553097 -2.1069338 7.1525574e-07 1.4290323e-38
-0.3459934 -2.1069338 7.1525574e-07 1.4290323e-38
-0.3366771 -2.1069338 7.1525574e-07 1.4290323e-38
-0.32503176 -2.1069338 7.1525574e-07 1.4290323e-38
-0.31338638 -2.1069338 7.1525574e-07 1.4290323e-38
-0.30407014 -2.1069338 5.9604645e-07 1.4290323e-38
-0.29475382 -2.1069338 5.9604645e-07 1.4290323e-38
-0.28543755 -2.1069338 5.9604645e-07 1.4290323e-38
-0.27612126 -2.1069338 5.9604645e-07 1.4290323e-38
-0.26680496 -2.1069338 5.9604645e-07 1.4290323e-38
-0.25515959 -2.1069338 7.1525574e-07 1.4290323e-38
-0.24351422 -2.1069338 7.1525574e-07 1.4290323e-38
-0.23419793 -2.1069338 7.1525574e-07 1.4290323e-38
-0.22488165 -2.1069338 7.1525574e-07 1.4290323e-38
-0.21556535 -2.1069338 7.1525574e-07 1.4290323e-38
-0.20624906 -2.1069338 7.1525574e-07 1.4290323e-38
-0.19693276 -2.1069336 7.7486038e-07 1.4290323e-38
-0.1852874 -2.1069336 8.3446503e-07 1.4290323e-38
-0.17364204 -2.1069336 8.3446503e-07 1.4290323e-38
-0.16432574 -2.1069336 8.3446503e-07 1.4290323e-38
-0.15500948 -2.1069336 8.3446503e-07 1.4290323e-38
-0.14569318 -2.1069336 8.3446503e-07 1.4290323e-38
-0.13637689 -2.1069336 8.3446503e-07 1.4290323e-38
-0.12473152 -2.1069334 9.1393787e-07 1.4290323e-38
-0.11308616 -2.1069334 9.5367432e-07 1.4290323e-38
-0.10376988 -2.1069334 9.5367432e-07 1.4290323e-38
-0.094453588 -2.1069334 9.5367432e-07 1.4290323e-38
-0.085137293 -2.1069334 9.5367432e-07 1.4290323e-38
-0.075821012 -2.1069334 9.5367432e-07 1.4290323e-38
-0.066504724 -2.1069334 9.5367432e-07 1.4290323e-38
-0.05718844 -2.1069334 9.5367432e-07 1.4290323e-38
0.047619786 -2.1069334 1.1920929e-06 1.4290323e-38
0.054607004 -2.1069334 1.1920929e-06 1.4290323e-38
0.063923284 -2.1069334 1.1920929e-06 1.4290323e-38
0.073239565 -2.1069331 1.3113022e-06 1.4290323e-38
0.084884919 -2.1069331 1.3113022e-06 1.4290323e-38
0.096530281 -2.1069331 1.3113022e-06 1.4290323e-38
0.10584657 -2.1069331 1.3113022e-06 1.4290323e-38
0.11516285 -2.1069331 1.3113022e-06 1.4290323e-38
0.12447913 -2.1069331 1.3113022e-06 1.4290323e-38
0.13379543 -2.1069331 1.3113022e-06 1.4290323e-38
0.14311169 -2.1069329 1.4305115e-06 1.4290323e-38
0.15475704 -2.1069329 1.4305115e-06 1.4290323e-38
0.1664024 -2.1069329 1.4305115e-06 1.4290323e-38
0.17571869 -2.1069329 1.4305115e-06 1.4290323e-38
0.18503498 -2.1069329 1.4305115e-06 1.4290323e-38
0.19435126 -2.1069329 1.4305115e-06 1.4290323e-38
0.20366754 -2.1069326 1.5497208e-06 1.4290323e-38
0.21531288 -2.1069326 1.6689301e-06 1.4290323e-38
0.22695825 -2.1069326 1.6689301e-06 1.4290323e-38
0.23627451 -2.1069326 1.6689301e-06 1.4290323e-38
0.24559081 -2.1069326 1.6689301e-06 1.4290323e-38
0.25490707 -2.1069326 1.6689301e-06 1.4290323e-38
0.26422337 -2.1069326 1.6689301e-06 1.4290323e-38
0.27353963 -2.1069324 1.7881393e-06 1.4290323e-38
0.28518498 -2.1069324 1.7881393e-06 1.4290323e-38
0.29683033 -2.1069324 1.7881393e-06 1.4290323e-38
0.30614662 -2.1069324 1.7881393e-06 1.4290323e-38
0.31546292 -2.1069324 1.7881393e-06 1.4290323e-38
0.32477918 -2.1069324 1.7881393e-06 1.4290323e-38
0.33409545 -2.1069324 1.7881393e-06 1.4290323e-38
0.34341174 -2.1069324 1.7881393e-06 1.4290323e-38
0.35505709 -2.1069324 1.7881393e-06 1.4290323e-38
0.36670247 -2.1069324 1.7881393e-06 1.4290323e-38
0.37601873 -2.1069324 1.7881393e-06 1.4290323e-38
0.38533503 -2.1069324 1.7881393e-06 1.4290323e-38
0.39465129 -2.1069324 1.7881393e-06 1.4290323e-38
0.40396756 -2.1069322 1.847744e-06 1.4290323e-38
0.41328382 -2.1069322 1.9073486e-06 1.4290323e-38
0.42492917 -2.1069322 1.9073486e-06 1.4290323e-38
0.43657455 -2.1069322 1.9073486e-06 1.4290323e-38
0.44589081 -2.1069322 1.9073486e-06 1.4290323e-38
0.45520708 -2.1069322 1.9073486e-06 1.4290323e-38
0.46452338 -2.1069322 1.9073486e-06 1.4290323e-38
0.47383961 -2.1069319 2.0265579e-06 1.4290323e-38
0.48315591 -2.1069319 2.0265579e-06 1.4290323e-38
0.49480125 -2.1069319 2.0265579e-06 1.4290323e-38
0.5064466 -2.1069319 2.0265579e-06 1.4290323e-38
0.51576293 -2.1069319 2.0265579e-06 1.4290323e-38
0.52507913 -2.1069319 2.0265579e-06 1.4290323e-38
0.53439546 -2.1069317 2.1457672e-06 1.4290323e-38
0.54371166 -2.1069317 2.2649765e-06 1.4290323e-38
0.55302799 -2.1069317 2.2649765e-06 1.4290323e-38
0.56467336 -2.1069317 2.2649765e-06 1.4290323e-38
0.57631868 -2.1069317 2.2649765e-06 1.4290323e-38
0.58563495 -2.1069317 2.2649765e-06 1.4290323e-38
0.59495127 -2.1069317 2.2649765e-06 1.4290323e-38
0.60426748 -2.1069317 2.3245811e-06 1.4290323e-38
0.61358374 -2.1069319 2.3841858e-06 1.4290323e-38
0.62522906 -2.1069319 2.3841858e-06 1.4290323e-38
0.63687444 -2.1069319 2.3841858e-06 1.4290323e-38
0.6461907 -2.1069319 2.3841858e-06 1.4290323e-38
0.65550697 -2.1069319 2.3841858e-06 1.4290323e-38
0.66482329 -2.1069319 2.3841858e-06 1.4290323e-38
0.6741395 -2.1069317 2.5033951e-06 1.4290323e-38
0.68345577 -2.1069317 2.5033951e-06 1.4290323e-38
0.69510108 -2.1069317 2.5033951e-06 1.4290323e-38
0.70674646 -2.1069317 2.5033951e-06 1.4290323e-38
0.71606278 -2.1069317 2.5033951e-06 1.4290323e-38
0.72537899 -2.1069317 2.5033951e-06 1.4290323e-38
0.73469532 -2.1069317 2.5033951e-06 1.4290323e-38
0.74401158 -2.1069317 2.5033951e-06 1.4290323e-38
0.75332785 -2.1069317 2.5033951e-06 1.4290323e-38
0.76497316 -2.1069317 2.5033951e-06 1.4290323e-38
0.77661854 -2.1069317 2.5033951e-06 1.4290323e-38
0.78593481 -2.1069317 2.5033951e-06 1.4290323e-38
0.79525113 -2.1069317 2.5033951e-06 1.4290323e-38
0.80456734 -2.1069314 2.7418137e-06 1.4290323e-38
0.81388354 -2.1069314 2.7418137e-06 1.4290323e-38
0.82319987 -2.1069314 2.7418137e-06 1.4290323e-38
0.83484524 -2.1069314 2.7418137e-06 1.4290323e-38
0.84649056 -2.1069314 2.7418137e-06 1.4290323e-38
0.85580683 -2.1069314 2.7418137e-06 1.4290323e-38
0.86512315 -2.1069314 2.7418137e-06 1.4290323e-38
0.87443936 -2.1069312 2.8610229e-06 1.4290323e-38
0.88375556 -2.1069312 2.8610229e-06 1.4290323e-38
0.89307189 -2.1069312 2.8610229e-06 1.4290323e-38
0.90471727 -2.1069312 2.8610229e-06 1.4290323e-38
0.91636252 -2.1069312 2.8610229e-06 1.4290323e-38
0.92567885 -2.1069312 2.8610229e-06 1.4290323e-38
0.93499506 -2.1069312 2.9206276e-06 1.4290323e-38
0.94431126 -2.106931 2.9802322e-06 1.4290323e-38
0.95362765 -2.1069312 2.9206276e-06 1.4290323e-38
0.96527296 -2.1069312 2.8610229e-06 1.4290323e-38
0.97691834 -2.1069312 2.8610229e-06 1.4290323e-38
0.98623466 -2.1069312 2.8610229e-06 1.4290323e-38
0.99555087 -2.1069312 2.8610229e-06 1.4290323e-38
1.0048671 -2.1069312 2.8610229e-06 1.4290323e-38
1.0141835 -2.1069312 2.8610229e-06 1.4290323e-38
1.0234997 -2.1069312 2.8610229e-06 1.4290323e-38
1.0351452 -2.1069312 2.8610229e-06 1.4290323e-38
1.0467904 -2.1069312 2.8610229e-06 1.4290323e-38
1.0561066 -2.1069312 2.8610229e-06 1.4290323e-38
1.065423 -2.1069312 2.8610229e-06 1.4290323e-38
1.0747392 -2.1069312 2.8610229e-06 1.4290323e-38
1.0840554 -2.1069312 2.8610229e-06 1.4290323e-38
1.0933717 -2.1069312 2.8610229e-06 1.4290323e-38
1.1050172 -2.1069312 2.8610229e-06 1.4290323e-38
1.1166625 -2.1069312 2.8610229e-06 1.4290323e-38
1.1259787 -2.1069312 2.8610229e-06 1.4290323e-38
1.1352949 -2.1069312 2.8610229e-06 1.4290323e-38
1.1446114 -2.1069312 2.8610229e-06 1.4290323e-38
1.1539276 -2.1069312 2.8610229e-06 1.4290323e-38
1.1632438 -2.1069312 2.8610229e-06 1.4290323e-38
1.1748892 -2.1069312 2.8610229e-06 1.4290323e-38
1.1865345 -2.1069312 2.8610229e-06 1.4290323e-38
1.1958508 -2.1069312 2.8610229e-06 1.4290323e-38
1.2051671 -2.1069312 2.8610229e-06 1.4290323e-38
1.2144833 -2.1069312 2.8610229e-06 1.4290323e-38
1.2237997 -2.1069312 2.8610229e-06 1.4290323e-38
1.2331159 -2.1069312 2.8610229e-06 1.4290323e-38
1.2447613 -2.1069312 2.8610229e-06 1.4290323e-38
1.2564065 -2.1069312 2.8610229e-06 1.4290323e-38
1.2657229 -2.1069312 2.8610229e-06 1.4290323e-38
1.2750392 -2.1069312 2.8610229e-06 1.4290323e-38
1.2843554 -2.1069312 2.8610229e-06 1.4290323e-38
1.2936716 -2.1069312 2.8610229e-06 1.4290323e-38
1.305317 -2.1069312 2.8610229e-06 1.4290323e-38
1.3169625 -2.1069312 2.8610229e-06 1.4290323e-38
1.3262787 -2.1069312 2.8610229e-06 1.4290323e-38
1.3355949 -2.1069312 2.8610229e-06 1.4290323e-38
1.3449112 -2.1069312 2.8610229e-06 1.4290323e-38
1.3542275 -2.1069312 2.8610229e-06 1.4290323e-38
1.3635437 -2.1069312 2.8610229e-06 1.4290323e-38
1.3751892 -2.1069312 2.8610229e-06 1.4290323e-38
1.3868344 -2.1069312 2.8610229e-06 1.4290323e-38
1.3961508 -2.1069312 2.8610229e-06 1.4290323e-38
1.405467 -2.1069312 2.8610229e-06 1.4290323e-38
1.4147832 -2.1069312 2.8610229e-06 1.4290323e-38
1.4240996 -2.1069312 2.8610229e-06 1.4290323e-38
1.4334159 -2.1069312 2.8610229e-06 1.4290323e-38
1.4450612 -2.1069312 2.8610229e-06 1.4290323e-38
1.4567065 -2.1069312 2.8610229e-06 1.4290323e-38
1.4660227 -2.1069312 2.8610229e-06 1.4290323e-38
1.4753392 -2.1069312 2.8610229e-06 1.4290323e-38
1.4846554 -2.1069312 2.8610229e-06 1.4290323e-38
1.4939716 -2.1069312 2.8610229e-06 1.4290323e-38
1.5032879 -2.1069312 2.8610229e-06 1.4290323e-38
1.5102751 -2.1069312 2.8610229e-06 1.4290323e-38
-1.4625309 -2.0995286 9.5367432e-07 1.4290323e-38
-1.4560238 -2.0958447 8.9406967e-07 1.4290323e-38
-1.4454471 -2.095108 8.8214875e-07 1.4290323e-38
-1.4341165 -2.0965815 9.0599059e-07 1.4290323e-38
-1.4235399 -2.0958447 8.9406967e-07 1.4290323e-38
-1.4142586 -2.0958447 8.9406967e-07 1.4290323e-38
-1.4049773 -2.0958447 8.9406967e-07 1.4290323e-38
-1.3956962 -2.0958447 8.9406967e-07 1.4290323e-38
-1.3851347 -2.0951078 8.8214875e-07 1.4290323e-38
-1.3748165 -2.0958447 8.9406967e-07 1.4290323e-38
-1.3644903 -2.0965817 8.5830686e-07 1.4290323e-38
-1.353931 -2.0958447 8.3446503e-07 1.4290323e-38
-1.3446498 -2.095845 8.3446503e-07 1.4290323e-38
-1.3353686 -2.0958447 8.3446503e-07 1.4290323e-38
-1.3260875 -2.0958447 8.3446503e-07 1.4290323e-38
-1.3155434 -2.0951083 8.3446503e-07 1.4290323e-38
-1.3052077 -2.0958447 8.3446503e-07 1.4290323e-38
-1.2948639 -2.0965817 8.3446503e-07 1.4290323e-38
-1.2843223 -2.0958447 8.3446503e-07 1.4290323e-38
-1.2750411 -2.0958447 8.3446503e-07 1.4290323e-38
-1.2657598 -2.0958447 8.3446503e-07 1.4290323e-38
-1.255231 -2.095108 8.3446503e-07 1.4290323e-38
-1.2448802 -2.095845 8.3446503e-07 1.4290323e-38
-1.2345212 -2.0965817 8.3446503e-07 1.4290323e-38
-1.2239945 -2.095845 8.3446503e-07 1.4290323e-38
-1.2147133 -2.095845 8.3446503e-07 1.4290323e-38
-1.2054322 -2.0958447 8.3446503e-07 1.4290323e-38
-1.196151 -2.0958447 8.3446503e-07 1.4290323e-38
-1.1856396 -2.0951083 8.3446503e-07 1.4290323e-38
-1.1752713 -2.095845 8.3446503e-07 1.4290323e-38
-1.1648948 -2.0965817 8.3446503e-07 1.4290323e-38
-1.1543858 -2.0958447 8.3446503e-07 1.4290323e-38
-1.1451046 -2.0958447 8.3446503e-07 1.4290323e-38
-1.1358235 -2.095845 8.3446503e-07 1.4290323e-38
-1.1253272 -2.0951083 8.3446503e-07 1.4290323e-38
-1.1149437 -2.0958447 8.3446503e-07 1.4290323e-38
-1.104552 -2.0965817 8.3446503e-07 1.4290323e-38
-1.094058 -2.095845 8.3446503e-07 1.4290323e-38
-1.084777 -2.095845 8.3446503e-07 1.4290323e-38
-1.0754957 -2.0958447 8.3446503e-07 1.4290323e-38
-1.0650146 -2.095108 8.3446503e-07 1.4290323e-38
-1.0546161 -2.0958447 8.3446503e-07 1.4290323e-38
-1.0453348 -2.0958447 8.3446503e-07 1.4290323e-38
-1.0349257 -2.0965817 8.3446503e-07 1.4290323e-38
-1.0244493 -2.095845 8.3446503e-07 1.4290323e-38
-1.0151682 -2.0958447 8.3446503e-07 1.4290323e-38
-1.005887 -2.0958447 8.3446503e-07 1.4290323e-38
-0.99542332 -2.095108 8.3446503e-07 1.4290323e-38
-0.98500729 -2.0958447 8.3446503e-07 1.4290323e-38
-0.97458297 -2.0965817 8.3446503e-07 1.4290323e-38
-0.9641217 -2.095845 8.3446503e-07 1.4290323e-38
-0.95484054 -2.095845 8.3446503e-07 1.4290323e-38
-0.94555932 -2.0958447 8.3446503e-07 1.4290323e-38
-0.93511087 -2.095108 8.3446503e-07 1.4290323e-38
-0.92467958 -2.095845 8.3446503e-07 1.4290323e-38
-0.91539842 -2.0958447 8.3446503e-07 1.4290323e-38
-0.90495664 -2.0965817 8.3446503e-07 1.4290323e-38
-0.89451289 -2.0958447 8.3446503e-07 1.4290323e-38
-0.88523173 -2.0958447 8.3446503e-07 1.4290323e-38
-0.87479842 -2.0951083 8.3446503e-07 1.4290323e-38
-0.86435199 -2.095845 8.3446503e-07 1.4290323e-38
-0.85507083 -2.0958447 8.3446503e-07 1.4290323e-38
-0.84578967 -2.0958447 8.3446503e-07 1.4290323e-38
-0.83533037 -2.0965817 8.3446503e-07 1.4290323e-38
-0.82490408 -2.0958447 8.3446503e-07 1.4290323e-38
-0.81562293 -2.0958447 8.3446503e-07 1.4290323e-38
-0.80520707 -2.095108 8.3446503e-07 1.4290323e-38
-0.79474318 -2.0958447 8.3446503e-07 1.4290323e-38
-0.78546202 -2.0958447 8.3446503e-07 1.4290323e-38
-0.77498758 -2.0965817 8.3446503e-07 1.4290323e-38
-0.76457644 -2.095845 8.3446503e-07 1.4290323e-38
-0.75529528 -2.0958447 8.3446503e-07 1.4290323e-38
-0.74489468 -2.0951083 8.3446503e-07 1.4290323e-38
-0.73441553 -2.095845 8.3446503e-07 1.4290323e-38
-0.72513437 -2.0958447 8.3446503e-07 1.4290323e-38
-0.71585321 -2.0958447 8.3446503e-07 1.4290323e-38
-0.70536125 -2.0965817 8.3446503e-07 1.4290323e-38
-0.69496763 -2.0958447 8.3446503e-07 1.4290323e-38
-0.68458223 -2.0951083 8.3446503e-07 1.4290323e-38
-0.67408794 -2.095845 8.3446503e-07 1.4290323e-38
-0.66480678 -2.0958447 8.3446503e-07 1.4290323e-38
-0.65552557 -2.095845 8.3446503e-07 1.4290323e-38
-0.64501846 -2.0965817 8.3446503e-07 1.4290323e-38
-0.63464004 -2.0958447 8.3446503e-07 1.4290323e-38
-0.62535888 -2.0958447 8.3446503e-07 1.4290323e-38
-0.61499089 -2.095108 8.3446503e-07 1.4290323e-38
-0.60447919 -2.0958447 8.3446503e-07 1.4290323e-38
-0.59519804 -2.0958447 8.3446503e-07 1.4290323e-38
-0.58591682 -2.0958447 8.3446503e-07 1.4290323e-38
-0.57539219 -2.0965817 8.3446503e-07 1.4290323e-38
-0.56503123 -2.095845 8.3446503e-07 1.4290323e-38
-0.55467844 -2.095108 8.3446503e-07 1.4290323e-38
-0.54415154 -2.0958447 8.3446503e-07 1.4290323e-38
-0.53487039 -2.0958447 8.3446503e-07 1.4290323e-38
-0.52558923 -2.0958447 8.3446503e-07 1.4290323e-38
-0.5150494 -2.0965817 8.3446503e-07 1.4290323e-38
-0.50470364 -2.095845 8.3446503e-07 1.4290323e-38
-0.49436602 -2.0951083 8.3446503e-07 1.4290323e-38
-0.4838239 -2.0958447 8.3446503e-07 1.4290323e-38
-0.47454274 -2.0958447 8.3446503e-07 1.4290323e-38
-0.46526158 -2.0958447 8.3446503e-07 1.4290323e-38
-0.45598042 -2.0958447 8.3446503e-07 1.4290323e-38
-0.44542313 -2.0965817 8.3446503e-07 1.4290323e-38
-0.43509483 -2.095845 8.3446503e-07 1.4290323e-38
-0.42477474 -2.095108 8.3446503e-07 1.4290323e-38
-0.41421515 -2.0958447 8.3446503e-07 1.4290323e-38
-0.40493399 -2.0958447 8.3446503e-07 1.4290323e-38
-0.39565277 -2.0958447 8.3446503e-07 1.4290323e-38
-0.38637161 -2.095845 8.3446503e-07 1.4290323e-38
-0.37579685 -2.0965817 8.3446503e-07 1.4290323e-38
-0.36446229 -2.095108 8.3446503e-07 1.4290323e-38
-0.3538875 -2.095845 8.3446503e-07 1.4290323e-38
-0.34460634 -2.095845 8.3446503e-07 1.4290323e-38
-0.33532515 -2.095845 8.3446503e-07 1.4290323e-38
-0.32604399 -2.0958447 8.3446503e-07 1.4290323e-38
-0.31545407 -2.0965817 8.3446503e-07 1.4290323e-38
-0.30414981 -2.095108 8.3446503e-07 1.4290323e-38
-0.29355988 -2.095845 6.5565109e-07 1.4290323e-38
-0.28427875 -2.0958452 5.9604645e-07 1.4290323e-38
-0.27499756 -2.0958452 5.9604645e-07 1.4290323e-38
-0.2657164 -2.0958452 5.9604645e-07 1.4290323e-38
-0.25643522 -2.0958452 5.9604645e-07 1.4290323e-38
-0.24582776 -2.0965819 5.9604645e-07 1.4290323e-38
-0.23455854 -2.0951083 7.3909757e-07 1.4290323e-38
-0.22395109 -2.095845 7.1525574e-07 1.4290323e-38
-0.2146699 -2.0958447 8.3446503e-07 1.4290323e-38
-0.20538872 -2.0958447 8.3446503e-07 1.4290323e-38
-0.19610757 -2.095845 8.3446503e-07 1.4290323e-38
-0.18548496 -2.0965817 8.3446503e-07 1.4290323e-38
-0.17424607 -2.095108 8.3446503e-07 1.4290323e-38
-0.16362345 -2.0958447 8.3446503e-07 1.4290323e-38
-0.15434228 -2.0958447 8.6426735e-07 1.4290323e-38
-0.14506109 -2.0958447 8.9406967e-07 1.4290323e-38
-0.13577993 -2.0958447 8.9406967e-07 1.4290323e-38
-0.12649876 -2.0958447 8.9406967e-07 1.4290323e-38
-0.11489729 -2.095845 9.1393787e-07 1.4290323e-38
-0.10329582 -2.0958447 9.5367432e-07 1.4290323e-38
-0.094014652 -2.0958447 9.5367432e-07 1.4290323e-38
-0.084733471 -2.0958445 9.5367432e-07 1.4290323e-38
-0.075452298 -2.0958445 9.5367432e-07 1.4290323e-38
-0.066171132 -2.0958445 9.5367432e-07 1.4290323e-38
-0.056889959 -2.0958445 9.5367432e-07 1.4290323e-38
0.047523215 -2.095844 1.2516975e-06 1.4290323e-38
0.054484092 -2.095844 1.2516975e-06 1.4290323e-38
0.063765258 -2.095844 1.2516975e-06 1.4290323e-38
0.074424028 -2.0951073 1.2397766e-06 1.4290323e-38
0.085590594 -2.0965807 1.2874603e-06 1.4290323e-38
0.096249357 -2.0958438 1.3113022e-06 1.4290323e-38
0.10553052 -2.0958438 1.3113022e-06 1.4290323e-38
0.1148117 -2.0958438 1.3113022e-06 1.4290323e-38
0.12409286 -2.0958438 1.3113022e-06 1.4290323e-38
0.13337404 -2.0958438 1.3113022e-06 1.4290323e-38
0.14497548 -2.0958436 1.3113022e-06 1.4290323e-38
0.15657693 -2.0958438 1.3709068e-06 1.4290323e-38
0.16585812 -2.0958438 1.3709068e-06 1.4290323e-38
0.17513928 -2.0958438 1.3709068e-06 1.4290323e-38
0.18442045 -2.0958438 1.4305115e-06 1.4290323e-38
0.19370162 -2.0958438 1.4305115e-06 1.4290323e-38
0.20432773 -2.0951068 1.4305115e-06 1.4290323e-38
0.2155596 -2.0965805 1.4305115e-06 1.4290323e-38
0.22618571 -2.0958438 1.4305115e-06 1.4290323e-38
0.23546687 -2.0958438 1.4305115e-06 1.4290323e-38
0.24474803 -2.0958438 1.4603138e-06 1.4290323e-38
0.25402921 -2.0958438 1.4901161e-06 1.4290323e-38
0.26464012 -2.0951068 1.4781951e-06 1.4290323e-38
0.27590233 -2.0965803 1.5020371e-06 1.4290323e-38
0.28651327 -2.0958436 1.5497208e-06 1.4290323e-38
0.29579443 -2.0958438 1.6093254e-06 1.4290323e-38
0.30507562 -2.0958438 1.6093254e-06 1.4290323e-38
0.31435674 -2.0958436 1.7285347e-06 1.4290323e-38
0.32363793 -2.0958436 1.7285347e-06 1.4290323e-38
0.33423138 -2.0951068 1.7166137e-06 1.4290323e-38
0.3455286 -2.09658 1.7404557e-06 1.4290323e-38
0.35612202 -2.0958433 1.7881393e-06 1.4290323e-38
0.36540318 -2.0958433 1.7881393e-06 1.4290323e-38
0.37468436 -2.0958433 1.8179417e-06 1.4290323e-38
0.38396549 -2.0958433 1.847744e-06 1.4290323e-38
0.39454374 -2.0951066 1.835823e-06 1.4290323e-38
0.4058713 -2.09658 1.859665e-06 1.4290323e-38
0.41644955 -2.0958433 1.8775463e-06 1.4290323e-38
0.42573071 -2.0958433 1.9073486e-06 1.4290323e-38
0.43501192 -2.0958433 1.9073486e-06 1.4290323e-38
0.44429302 -2.0958433 1.937151e-06 1.4290323e-38
0.4548561 -2.0951066 1.9550323e-06 1.4290323e-38
0.46517271 -2.0958433 1.9669533e-06 1.4290323e-38
0.47549754 -2.09658 1.9788743e-06 1.4290323e-38
0.48605824 -2.0958433 1.9967556e-06 1.4290323e-38
0.49533939 -2.0958433 2.0265579e-06 1.4290323e-38
0.50462055 -2.0958433 2.0265579e-06 1.4290323e-38
0.51390171 -2.0958433 2.0265579e-06 1.4290323e-38
0.52444732 -2.0951066 2.0265579e-06 1.4290323e-38
0.53478146 -2.0958433 2.0265579e-06 1.4290323e-38
0.54512376 -2.09658 2.0265579e-06 1.4290323e-38
0.55566692 -2.0958431 2.1457672e-06 1.4290323e-38
0.56494814 -2.0958431 2.1457672e-06 1.4290323e-38
0.57422924 -2.0958431 2.2053719e-06 1.4290323e-38
0.58475971 -2.0951064 2.2649765e-06 1.4290323e-38
0.59510899 -2.0958431 2.2649765e-06 1.4290323e-38
0.60546649 -2.0965798 2.2649765e-06 1.4290323e-38
0.61599451 -2.0958428 2.2649765e-06 1.4290323e-38
0.62527567 -2.0958428 2.2649765e-06 1.4290323e-38
0.63455689 -2.0958428 2.2649765e-06 1.4290323e-38
0.64383799 -2.0958428 2.3245811e-06 1.4290323e-38
0.65435094 -2.0951061 2.3126602e-06 1.4290323e-38
0.66471767 -2.0958428 2.3245811e-06 1.4290323e-38
0.67509264 -2.0965796 2.3365021e-06 1.4290323e-38
0.68560314 -2.0958428 2.3841858e-06 1.4290323e-38
0.69488436 -2.0958428 2.3841858e-06 1.4290323e-38
0.70416552 -2.0958428 2.3841858e-06 1.4290323e-38
0.71466327 -2.0951056 2.4318695e-06 1.4290323e-38
0.7250452 -2.0958426 2.4437904e-06 1.4290323e-38
0.73543537 -2.0965793 2.4557114e-06 1.4290323e-38
0.74593067 -2.0958426 2.4437904e-06 1.4290323e-38
0.75521183 -2.0958424 2.5033951e-06 1.4290323e-38
0.76449305 -2.0958424 2.5033951e-06 1.4290323e-38
0.7749756 -2.0951056 2.5510788e-06 1.4290323e-38
0.78537261 -2.0958424 2.6226044e-06 1.4290323e-38
0.79465383 -2.0958424 2.6226044e-06 1.4290323e-38
0.80506146 -2.0965791 2.6464463e-06 1.4290323e-38
0.81553936 -2.0958424 2.682209e-06 1.4290323e-38
0.82482052 -2.0958424 2.7418137e-06 1.4290323e-38
0.83410162 -2.0958424 2.7418137e-06 1.4290323e-38
0.8445667 -2.0951056 2.7894973e-06 1.4290323e-38
0.8549813 -2.0958424 2.8014183e-06 1.4290323e-38
0.86540413 -2.0965791 2.8133393e-06 1.4290323e-38
0.87586689 -2.0958424 2.8014183e-06 1.4290323e-38
0.88514793 -2.0958424 2.8610229e-06 1.4290323e-38
0.89442915 -2.0958424 2.8610229e-06 1.4290323e-38
0.90487909 -2.0951056 2.8610229e-06 1.4290323e-38
0.91530883 -2.0958424 2.8610229e-06 1.4290323e-38
0.92458999 -2.0958424 2.8610229e-06 1.4290323e-38
0.93503028 -2.0965791 2.8610229e-06 1.4290323e-38
0.94547546 -2.0958424 2.8610229e-06 1.4290323e-38
0.95475674 -2.0958424 2.8610229e-06 1.4290323e-38
0.96519136 -2.0951056 2.8610229e-06 1.4290323e-38
0.97563636 -2.0958424 2.8610229e-06 1.4290323e-38
0.98491752 -2.0958424 2.8610229e-06 1.4290323e-38
0.99419868 -2.0958424 2.8610229e-06 1.4290323e-38
1.0046564 -2.0965791 2.8610229e-06 1.4290323e-38
1.0150843 -2.0958424 2.8610229e-06 1.4290323e-38
1.0243654 -2.0958424 2.8610229e-06 1.4290323e-38
1.0347826 -2.0951056 2.8610229e-06 1.4290323e-38
1.0452449 -2.0958424 2.8610229e-06 1.4290323e-38
1.0545262 -2.0958424 2.8610229e-06 1.4290323e-38
1.0649991 -2.0965791 2.8610229e-06 1.4290323e-38
1.0754117 -2.0958424 2.8610229e-06 1.4290323e-38
1.0846928 -2.0958424 2.8610229e-06 1.4290323e-38
1.0950949 -2.0951056 2.8610229e-06 1.4290323e-38
1.1055726 -2.0958424 2.8610229e-06 1.4290323e-38
1.1148536 -2.0958424 2.8610229e-06 1.4290323e-38
1.1241349 -2.0958424 2.8610229e-06 1.4290323e-38
1.1346253 -2.0965791 2.8610229e-06 1.4290323e-38
1.1450204 -2.0958424 2.8610229e-06 1.4290323e-38
1.1554074 -2.0951056 2.8610229e-06 1.4290323e-38
1.1659001 -2.0958424 2.8610229e-06 1.4290323e-38
1.1751813 -2.0958424 2.8610229e-06 1.4290323e-38
1.1844624 -2.0958424 2.8610229e-06 1.4290323e-38
1.194968 -2.0965791 2.8610229e-06 1.4290323e-38
1.2053479 -2.0958424 2.8610229e-06 1.4290323e-38
1.2146291 -2.0958424 2.8610229e-06 1.4290323e-38
1.2249986 -2.0951056 2.8610229e-06 1.4290323e-38
1.2355089 -2.0958424 2.8610229e-06 1.4290323e-38
1.24479 -2.0958424 2.8610229e-06 1.4290323e-38
1.2540712 -2.0958424 2.8610229e-06 1.4290323e-38
1.2645943 -2.0965791 2.8610229e-06 1.4290323e-38
1.2749566 -2.0958424 2.8610229e-06 1.4290323e-38
1.285311 -2.0951056 2.8610229e-06 1.4290323e-38
1.2958363 -2.0958424 2.8610229e-06 1.4290323e-38
1.3051175 -2.0958424 2.8610229e-06 1.4290323e-38
1.3143988 -2.0958424 2.8610229e-06 1.4290323e-38
1.324937 -2.0965791 2.8610229e-06 1.4290323e-38
1.3352842 -2.0958424 2.8610229e-06 1.4290323e-38
1.3456233 -2.0951056 2.8610229e-06 1.4290323e-38
1.3561639 -2.0958424 2.8610229e-06 1.4290323e-38
1.3654449 -2.0958424 2.8610229e-06 1.4290323e-38
1.3747262 -2.0958424 2.8610229e-06 1.4290323e-38
1.3840073 -2.0958424 2.8610229e-06 1.4290323e-38
1.3945631 -2.0965791 2.8610229e-06 1.4290323e-38
1.4048929 -2.0958424 2.8610229e-06 1.4290323e-38
1.4152145 -2.0951056 2.8610229e-06 1.4290323e-38
1.4257727 -2.0958424 2.8610229e-06 1.4290323e-38
1.4350537 -2.0958424 2.8610229e-06 1.4290323e-38
1.444335 -2.0958424 2.8610229e-06 1.4290323e-38
1.4536161 -2.0958424 2.8610229e-06 1.4290323e-38
1.4641893 -2.0965791 2.8610229e-06 1.4290323e-38
1.4755269 -2.0951056 2.8610229e-06 1.4290323e-38
1.4861002 -2.0958424 2.8610229e-06 1.4290323e-38
1.4953814 -2.0958424 2.8610229e-06 1.4290323e-38
1.5037378 -2.0970705 2.8610229e-06 1.4290323e-38
-1.4527835 -2.0848296 8.3446503e-07 1.4290323e-38
-1.4435372 -2.0848296 8.3446503e-07 1.4290323e-38
-1.4342909 -2.0848296 8.3446503e-07 1.4290323e-38
-1.4250445 -2.0848296 8.3446503e-07 1.4290323e-38
-1.4157984 -2.0848298 7.7486038e-07 1.4290323e-38
-1.4065521 -2.0848298 7.1525574e-07 1.4290323e-38
-1.3949943 -2.0848298 7.1525574e-07 1.4290323e-38
-1.3834364 -2.0848298 7.1525574e-07 1.4290323e-38
-1.3741901 -2.0848298 7.1525574e-07 1.4290323e-38
-1.3649439 -2.0848298 7.1525574e-07 1.4290323e-38
-1.3556975 -2.0848298 7.1525574e-07 1.4290323e-38
-1.3464513 -2.0848298 7.1525574e-07 1.4290323e-38
-1.3348933 -2.0848298 7.1525574e-07 1.4290323e-38
-1.3233355 -2.0848298 7.1525574e-07 1.4290323e-38
-1.3140893 -2.0848298 7.1525574e-07 1.4290323e-38
-1.3048429 -2.0848298 7.1525574e-07 1.4290323e-38
-1.2955966 -2.0848298 7.1525574e-07 1.4290323e-38
-1.2863504 -2.0848298 7.1525574e-07 1.4290323e-38
-1.2747924 -2.0848298 7.1525574e-07 1.4290323e-38
-1.2632346 -2.0848298 7.1525574e-07 1.4290323e-38
-1.2539883 -2.0848298 7.1525574e-07 1.4290323e-38
-1.244742 -2.0848298 7.1525574e-07 1.4290323e-38
-1.2354958 -2.0848298 7.1525574e-07 1.4290323e-38
-1.2262495 -2.0848298 7.1525574e-07 1.4290323e-38
-1.2146916 -2.0848298 7.1525574e-07 1.4290323e-38
-1.2031337 -2.0848298 7.1525574e-07 1.4290323e-38
-1.1938875 -2.0848298 7.1525574e-07 1.4290323e-38
-1.1846411 -2.0848298 7.1525574e-07 1.4290323e-38
-1.1753949 -2.0848298 7.1525574e-07 1.4290323e-38
-1.1661485 -2.0848298 7.1525574e-07 1.4290323e-38
-1.1569023 -2.0848298 7.1525574e-07 1.4290323e-38
-1.1453444 -2.0848298 7.1525574e-07 1.4290323e-38
-1.1337866 -2.0848298 7.1525574e-07 1.4290323e-38
-1.1245402 -2.0848298 7.1525574e-07 1.4290323e-38
-1.115294 -2.0848298 7.1525574e-07 1.4290323e-38
-1.1060476 -2.0848298 7.1525574e-07 1.4290323e-38
-1.0968014 -2.0848298 7.1525574e-07 1.4290323e-38
-1.0852436 -2.0848298 7.1525574e-07 1.4290323e-38
-1.0736856 -2.0848298 7.1525574e-07 1.4290323e-38
-1.0644393 -2.0848298 7.1525574e-07 1.4290323e-38
-1.0551931 -2.0848298 7.1525574e-07 1.4290323e-38
-1.0459468 -2.0848298 7.1525574e-07 1.4290323e-38
-1.0367005 -2.0848298 7.1525574e-07 1.4290323e-38
-1.0251426 -2.0848298 7.1525574e-07 1.4290323e-38
-1.0135847 -2.0848298 7.1525574e-07 1.4290323e-38
-1.0043385 -2.0848298 7.1525574e-07 1.4290323e-38
-0.99509209 -2.0848298 7.1525574e-07 1.4290323e-38
-0.9858458 -2.0848298 7.1525574e-07 1.4290323e-38
-0.97659951 -2.0848298 7.1525574e-07 1.4290323e-38
-0.96504164 -2.0848298 7.1525574e-07 1.4290323e-38
-0.95348382 -2.0848298 7.1525574e-07 1.4290323e-38
-0.94423747 -2.0848298 7.1525574e-07 1.4290323e-38
-0.93499124 -2.0848298 7.1525574e-07 1.4290323e-38
-0.92574489 -2.0848298 7.1525574e-07 1.4290323e-38
-0.9164986 -2.0848298 7.1525574e-07 1.4290323e-38
-0.90494078 -2.0848298 7.1525574e-07 1.4290323e-38
-0.89338291 -2.0848298 7.1525574e-07 1.4290323e-38
-0.88413656 -2.0848298 7.1525574e-07 1.4290323e-38
-0.87489033 -2.0848298 7.1525574e-07 1.4290323e-38
-0.86564398 -2.0848298 7.1525574e-07 1.4290323e-38
-0.85639775 -2.0848298 7.1525574e-07 1.4290323e-38
-0.84483981 -2.0848298 7.1525574e-07 1.4290323e-38
-0.83328199 -2.0848298 7.1525574e-07 1.4290323e-38
-0.8240357 -2.0848298 7.1525574e-07 1.4290323e-38
-0.81478941 -2.0848298 7.1525574e-07 1.4290323e-38
-0.80554312 -2.0848298 7.1525574e-07 1.4290323e-38
-0.79629683 -2.0848298 7.1525574e-07 1.4290323e-38
-0.78473896 -2.0848298 7.1525574e-07 1.4290323e-38
-0.77318108 -2.0848298 7.1525574e-07 1.4290323e-38
-0.76393479 -2.0848298 7.1525574e-07 1.4290323e-38
-0.7546885 -2.0848298 7.1525574e-07 1.4290323e-38
-0.74544221 -2.0848298 7.1525574e-07 1.4290323e-38
-0.73619592 -2.0848298 7.1525574e-07 1.4290323e-38
-0.72463804 -2.0848298 7.1525574e-07 1.4290323e-38
-0.71308017 -2.0848298 7.1525574e-07 1.4290323e-38
-0.70383394 -2.0848298 7.1525574e-07 1.4290323e-38
-0.69458759 -2.0848298 7.1525574e-07 1.4290323e-38
-0.68534136 -2.0848298 7.1525574e-07 1.4290323e-38
-0.67609501 -2.0848298 7.1525574e-07 1.4290323e-38
-0.66684872 -2.0848298 7.1525574e-07 1.4290323e-38
-0.65529084 -2.0848298 7.1525574e-07 1.4290323e-38
-0.64373302 -2.0848298 7.1525574e-07 1.4290323e-38
-0.63448668 -2.0848298 7.1525574e-07 1.4290323e-38
-0.62524045 -2.0848298 7.1525574e-07 1.4290323e-38
-0.6159941 -2.0848298 7.1525574e-07 1.4290323e-38
-0.60674787 -2.0848298 7.1525574e-07 1.4290323e-38
-0.59518999 -2.0848298 7.1525574e-07 1.4290323e-38
-0.58363211 -2.0848298 7.1525574e-07 1.4290323e-38
-0.57438582 -2.0848298 7.1525574e-07 1.4290323e-38
-0.56513953 -2.0848298 7.1525574e-07 1.4290323e-38
-0.55589324 -2.0848298 7.1525574e-07 1.4290323e-38
-0.54664695 -2.0848298 7.1525574e-07 1.4290323e-38
-0.53508908 -2.0848298 7.1525574e-07 1.4290323e-38
-0.5235312 -2.0848298 7.1525574e-07 1.4290323e-38
-0.51428491 -2.0848298 7.1525574e-07 1.4290323e-38
-0.50503862 -2.0848298 7.1525574e-07 1.4290323e-38
-0.49579233 -2.0848298 7.1525574e-07 1.4290323e-38
-0.48654604 -2.0848298 7.1525574e-07 1.4290323e-38
-0.47498819 -2.0848298 7.1525574e-07 1.4290323e-38
-0.46343032 -2.0848298 7.1525574e-07 1.4290323e-38
-0.45418403 -2.0848298 7.1525574e-07 1.4290323e-38
-0.44493774 -2.0848298 7.1525574e-07 1.4290323e-38
-0.43569145 -2.0848298 7.1525574e-07 1.4290323e-38
-0.42644516 -2.0848298 7.1525574e-07 1.4290323e-38
-0.41488728 -2.0848298 7.1525574e-07 1.4290323e-38
-0.40332943 -2.0848298 7.1525574e-07 1.4290323e-38
-0.39408314 -2.0848298 7.1525574e-07 1.4290323e-38
-0.38483685 -2.0848298 7.1525574e-07 1.4290323e-38
-0.37559056 -2.0848298 7.1525574e-07 1.4290323e-38
-0.36634427 -2.0848298 7.1525574e-07 1.4290323e-38
-0.3547864 -2.0848298 7.1525574e-07 1.4290323e-38
-0.34322852 -2.0848298 7.1525574e-07 1.4290323e-38
-0.33398223 -2.0848298 7.1525574e-07 1.4290323e-38
-0.32473594 -2.0848298 7.1525574e-07 1.4290323e-38
-0.31548965 -2.0848298 7.1525574e-07 1.4290323e-38
-0.30624336 -2.0848298 7.1525574e-07 1.4290323e-38
-0.29468551 -2.0848298 7.1525574e-07 1.4290323e-38
-0.28312764 -2.0848298 6.5565109e-07 1.4290323e-38
-0.27388138 -2.08483 5.9604645e-07 1.4290323e-38
-0.26463509 -2.08483 5.9604645e-07 1.4290323e-38
-0.2553888 -2.08483 5.9604645e-07 1.4290323e-38
-0.24614249 -2.08483 5.9604645e-07 1.4290323e-38
-0.23689619 -2.08483 5.9604645e-07 1.4290323e-38
-0.22533832 -2.08483 5.9604645e-07 1.4290323e-38
-0.21378046 -2.08483 5.9604645e-07 1.4290323e-38
-0.20453417 -2.08483 5.9604645e-07 1.4290323e-38
-0.19528785 -2.0848298 7.1525574e-07 1.4290323e-38
-0.18604156 -2.0848298 7.1525574e-07 1.4290323e-38
-0.17679527 -2.0848298 7.1525574e-07 1.4290323e-38
-0.16523741 -2.0848298 7.1525574e-07 1.4290323e-38
-0.15367955 -2.0848298 7.1525574e-07 1.4290323e-38
-0.14443326 -2.0848298 7.1525574e-07 1.4290323e-38
-0.13518697 -2.0848298 7.7486038e-07 1.4290323e-38
-0.12594065 -2.0848296 8.3446503e-07 1.4290323e-38
-0.11669436 -2.0848296 8.3446503e-07 1.4290323e-38
-0.10513649 -2.0848296 8.3446503e-07 1.4290323e-38
-0.093578637 -2.0848296 8.3446503e-07 1.4290323e-38
-0.084332347 -2.0848296 8.3446503e-07 1.4290323e-38
-0.075086057 -2.0848296 8.3446503e-07 1.4290323e-38
-0.06583976 -2.0848296 1.0728836e-06 1.4290323e-38
-0.05659347 -2.0848296 1.0728836e-06 1.4290323e-38
0.047427297 -2.0848296 1.1920929e-06 1.4290323e-38
0.054362014 -2.0848296 1.1920929e-06 1.4290323e-38
0.063608304 -2.0848293 1.2516975e-06 1.4290323e-38
0.075166158 -2.0848293 1.3113022e-06 1.4290323e-38
0.086724021 -2.0848293 1.3113022e-06 1.4290323e-38
0.09597031 -2.0848293 1.3113022e-06 1.4290323e-38
0.10521659 -2.0848293 1.3113022e-06 1.4290323e-38
0.11446288 -2.0848293 1.3113022e-06 1.4290323e-38
0.12370917 -2.0848293 1.3113022e-06 1.4290323e-38
0.13526703 -2.0848293 1.3113022e-06 1.4290323e-38
0.1468249 -2.0848293 1.3113022e-06 1.4290323e-38
0.15607119 -2.0848293 1.3113022e-06 1.4290323e-38
0.16531748 -2.0848293 1.3113022e-06 1.4290323e-38
0.17456377 -2.0848293 1.3113022e-06 1.4290323e-38
0.18381006 -2.0848293 1.3113022e-06 1.4290323e-38
0.19536789 -2.0848291 1.4702479e-06 1.4290323e-38
0.20692575 -2.0848291 1.5497208e-06 1.4290323e-38
0.21617204 -2.0848291 1.5497208e-06 1.4290323e-38
0.22541833 -2.0848291 1.5497208e-06 1.4290323e-38
0.23466462 -2.0848291 1.5497208e-06 1.4290323e-38
0.24391091 -2.0848291 1.5497208e-06 1.4290323e-38
0.2531572 -2.0848291 1.5497208e-06 1.4290323e-38
0.26471505 -2.0848289 1.6291937e-06 1.4290323e-38
0.27627289 -2.0848289 1.6689301e-06 1.4290323e-38
0.28551918 -2.0848289 1.6689301e-06 1.4290323e-38
0.29476547 -2.0848289 1.6689301e-06 1.4290323e-38
0.30401173 -2.0848289 1.6689301e-06 1.4290323e-38
0.31325802 -2.0848289 1.6689301e-06 1.4290323e-38
0.32481587 -2.0848286 1.7086664e-06 1.4290323e-38
0.33637372 -2.0848286 1.7881393e-06 1.4290323e-38
0.34562001 -2.0848286 1.7881393e-06 1.4290323e-38
0.3548663 -2.0848286 1.7881393e-06 1.4290323e-38
0.36411259 -2.0848286 1.7881393e-06 1.4290323e-38
0.37335888 -2.0848286 1.7881393e-06 1.4290323e-38
0.38491669 -2.0848286 1.7881393e-06 1.4290323e-38
0.39647454 -2.0848284 2.0265579e-06 1.4290323e-38
0.40572083 -2.0848284 2.0265579e-06 1.4290323e-38
0.41496712 -2.0848284 2.0265579e-06 1.4290323e-38
0.42421341 -2.0848284 2.0265579e-06 1.4290323e-38
0.43345967 -2.0848284 2.0265579e-06 1.4290323e-38
0.44501755 -2.0848284 2.0265579e-06 1.4290323e-38
0.45657539 -2.0848284 2.0265579e-06 1.4290323e-38
0.46582168 -2.0848284 2.0265579e-06 1.4290323e-38
0.47506797 -2.0848284 2.0265579e-06 1.4290323e-38
0.48431426 -2.0848284 2.0265579e-06 1.4290323e-38
0.49356052 -2.0848284 2.0265579e-06 1.4290323e-38
0.50511837 -2.0848284 2.0265579e-06 1.4290323e-38
0.51667625 -2.0848284 2.0265579e-06 1.4290323e-38
0.52592254 -2.0848284 2.0861626e-06 1.4290323e-38
0.53516877 -2.0848281 2.1457672e-06 1.4290323e-38
0.54441512 -2.0848281 2.1457672e-06 1.4290323e-38
0.55366135 -2.0848281 2.1457672e-06 1.4290323e-38
0.56521916 -2.0848281 2.1457672e-06 1.4290323e-38
0.5767771 -2.0848281 2.1457672e-06 1.4290323e-38
0.58602333 -2.0848281 2.1457672e-06 1.4290323e-38
0.59526956 -2.0848279 2.2649765e-06 1.4290323e-38
0.60451591 -2.0848279 2.2649765e-06 1.4290323e-38
0.61376214 -2.0848279 2.2649765e-06 1.4290323e-38
0.62532002 -2.0848279 2.2649765e-06 1.4290323e-38
0.63687789 -2.0848279 2.2649765e-06 1.4290323e-38
0.64612412 -2.0848279 2.2649765e-06 1.4290323e-38
0.65537035 -2.0848279 2.3841858e-06 1.4290323e-38
0.66461664 -2.0848279 2.5033951e-06 1.4290323e-38
0.67386293 -2.0848279 2.5033951e-06 1.4290323e-38
0.68310922 -2.0848279 2.5033951e-06 1.4290323e-38
0.69466704 -2.0848279 2.5033951e-06 1.4290323e-38
0.70622492 -2.0848279 2.5033951e-06 1.4290323e-38
0.71547121 -2.0848279 2.5033951e-06 1.4290323e-38
0.72471738 -2.0848277 2.6226044e-06 1.4290323e-38
0.73396373 -2.0848277 2.6226044e-06 1.4290323e-38
0.74320996 -2.0848277 2.6226044e-06 1.4290323e-38
0.75476789 -2.0848277 2.6226044e-06 1.4290323e-38
0.76632571 -2.0848277 2.6226044e-06 1.4290323e-38
0.77557194 -2.0848277 2.6226044e-06 1.4290323e-38
0.78481829 -2.0848277 2.6226044e-06 1.4290323e-38
0.79406446 -2.0848274 2.7418137e-06 1.4290323e-38
0.80331075 -2.0848274 2.7418137e-06 1.4290323e-38
0.81486863 -2.0848274 2.7418137e-06 1.4290323e-38
0.82642645 -2.0848274 2.7418137e-06 1.4290323e-38
0.83567274 -2.0848274 2.7418137e-06 1.4290323e-38
0.84491897 -2.0848274 2.7418137e-06 1.4290323e-38
0.85416532 -2.0848274 2.7418137e-06 1.4290323e-38
0.86341155 -2.0848274 2.7418137e-06 1.4290323e-38
0.87496942 -2.0848274 2.7418137e-06 1.4290323e-38
0.8865273 -2.0848274 2.7418137e-06 1.4290323e-38
0.89577353 -2.0848274 2.7418137e-06 1.4290323e-38
0.90501982 -2.0848274 2.7418137e-06 1.4290323e-38
0.91426611 -2.0848274 2.7418137e-06 1.4290323e-38
0.92351234 -2.0848272 2.8610229e-06 1.4290323e-38
0.93507022 -2.0848272 2.8212864e-06 1.4290323e-38
0.94662809 -2.0848274 2.7418137e-06 1.4290323e-38
0.95587432 -2.0848274 2.7418137e-06 1.4290323e-38
0.96512067 -2.0848274 2.7418137e-06 1.4290323e-38
0.9743669 -2.0848274 2.7418137e-06 1.4290323e-38
0.98361325 -2.0848274 2.7418137e-06 1.4290323e-38
0.99517107 -2.0848274 2.7418137e-06 1.4290323e-38
1.0067289 -2.0848274 2.7418137e-06 1.4290323e-38
1.0159752 -2.0848274 2.7418137e-06 1.4290323e-38
1.0252213 -2.0848274 2.7418137e-06 1.4290323e-38
1.0344677 -2.0848274 2.7418137e-06 1.4290323e-38
1.043714 -2.0848274 2.7418137e-06 1.4290323e-38
1.0552717 -2.0848274 2.7418137e-06 1.4290323e-38
1.0668297 -2.0848274 2.7418137e-06 1.4290323e-38
1.076076 -2.0848274 2.7418137e-06 1.4290323e-38
1.0853223 -2.0848274 2.7418137e-06 1.4290323e-38
1.0945685 -2.0848274 2.7418137e-06 1.4290323e-38
1.1038148 -2.0848274 2.7418137e-06 1.4290323e-38
1.1153727 -2.0848274 2.7418137e-06 1.4290323e-38
1.1269305 -2.0848274 2.7418137e-06 1.4290323e-38
1.1361768 -2.0848274 2.7418137e-06 1.4290323e-38
1.1454231 -2.0848274 2.7418137e-06 1.4290323e-38
1.1546693 -2.0848274 2.7418137e-06 1.4290323e-38
1.1639156 -2.0848274 2.7418137e-06 1.4290323e-38
1.173162 -2.0848274 2.7418137e-06 1.4290323e-38
1.1847197 -2.0848274 2.7418137e-06 1.4290323e-38
1.1962776 -2.0848274 2.7418137e-06 1.4290323e-38
1.205524 -2.0848274 2.7418137e-06 1.4290323e-38
1.2147702 -2.0848274 2.7418137e-06 1.4290323e-38
1.2240164 -2.0848274 2.7418137e-06 1.4290323e-38
1.2332628 -2.0848274 2.7418137e-06 1.4290323e-38
1.2448206 -2.0848274 2.7418137e-06 1.4290323e-38
1.2563784 -2.0848274 2.7418137e-06 1.4290323e-38
1.2656248 -2.0848274 2.7418137e-06 1.4290323e-38
1.274871 -2.0848274 2.7418137e-06 1.4290323e-38
1.2841172 -2.0848274 2.7418137e-06 1.4290323e-38
1.2933636 -2.0848274 2.7418137e-06 1.4290323e-38
1.3049214 -2.0848274 2.7418137e-06 1.4290323e-38
1.3164792 -2.0848274 2.7418137e-06 1.4290323e-38
1.3257256 -2.0848274 2.7418137e-06 1.4290323e-38
1.3349718 -2.0848274 2.7418137e-06 1.4290323e-38
1.3442181 -2.0848274 2.7418137e-06 1.4290323e-38
1.3534644 -2.0848274 2.7418137e-06 1.4290323e-38
1.3650223 -2.0848274 2.7418137e-06 1.4290323e-38
1.3765801 -2.0848274 2.7418137e-06 1.4290323e-38
1.3858263 -2.0848274 2.7418137e-06 1.4290323e-38
1.3950727 -2.0848274 2.7418137e-06 1.4290323e-38
1.4043189 -2.0848274 2.7418137e-06 1.4290323e-38
1.4135652 -2.0848274 2.7418137e-06 1.4290323e-38
1.4251231 -2.0848274 2.7418137e-06 1.4290323e-38
1.4366809 -2.0848274 2.7418137e-06 1.4290323e-38
1.4459271 -2.0848274 2.7418137e-06 1.4290323e-38
1.4551735 -2.0848274 2.7418137e-06 1.4290323e-38
1.4644197 -2.0848274 2.7418137e-06 1.4290323e-38
1.4736661 -2.0848274 2.7418137e-06 1.4290323e-38
1.4852239 -2.0848274 2.7418137e-06 1.4290323e-38
1.4967817 -2.0848274 2.7418137e-06 1.4290323e-38
-1.451405 -2.0775354 8.3446503e-07 1.4290323e-38
-1.4449606 -2.0739064 8.3446503e-07 1.4290323e-38
-1.4357488 -2.0739064 8.3446503e-07 1.4290323e-38
-1.4252563 -2.0731807 8.3446503e-07 1.4290323e-38
-1.4150254 -2.0739064 8.3446503e-07 1.4290323e-38
-1.4047863 -2.0746322 8.3446503e-07 1.4290323e-38
-1.3942962 -2.0739064 8.3446503e-07 1.4290323e-38
-1.3850844 -2.0739064 8.3446503e-07 1.4290323e-38
-1.3758727 -2.0739064 8.3446503e-07 1.4290323e-38
-1.3653952 -2.0731807 8.3446503e-07 1.4290323e-38
-1.3551494 -2.0739064 8.3446503e-07 1.4290323e-38
